ply
format ascii 1.0
comment Created as a sample sphere point cloud
element vertex 162
property float x
property float y
property float z
property uchar red
property uchar green
property uchar blue
end_header
0.000000 0.000000 1.000000 255 255 255
0.894427 0.000000 0.447214 255 223 223
0.276393 0.850651 0.447214 223 255 223
-0.723607 0.525731 0.447214 223 223 255
-0.723607 -0.525731 0.447214 255 223 255
0.276393 -0.850651 0.447214 255 255 223
0.723607 0.525731 -0.447214 191 255 255
-0.276393 0.850651 -0.447214 255 191 255
-0.894427 0.000000 -0.447214 255 255 191
-0.276393 -0.850651 -0.447214 191 191 255
0.723607 -0.525731 -0.447214 255 191 191
0.000000 0.000000 -1.000000 191 255 191
0.425325 0.309017 0.850651 255 159 159
0.262866 0.809017 0.525731 159 255 159
-0.162460 0.500000 0.850651 159 159 255
0.425325 -0.309017 0.850651 255 159 255
0.850651 0.000000 0.525731 159 255 255
-0.525731 0.000000 0.850651 255 255 159
-0.688191 0.500000 0.525731 127 255 255
-0.162460 -0.500000 0.850651 255 127 255
-0.688191 -0.500000 0.525731 255 255 127
0.262866 -0.809017 0.525731 127 127 255
0.951057 0.309017 0.000000 255 127 127
0.951057 -0.309017 0.000000 127 255 127
0.000000 1.000000 0.000000 95 255 255
0.587785 0.809017 0.000000 255 95 255
-0.951057 0.309017 0.000000 255 255 95
-0.587785 0.809017 0.000000 95 95 255
-0.587785 -0.809017 0.000000 255 95 95
-0.951057 -0.309017 0.000000 95 255 95
0.587785 -0.809017 0.000000 63 255 255
0.000000 -1.000000 0.000000 255 63 255
0.688191 0.500000 -0.525731 255 255 63
-0.262866 0.809017 -0.525731 63 63 255
-0.850651 0.000000 -0.525731 255 63 63
-0.262866 -0.809017 -0.525731 63 255 63
0.688191 -0.500000 -0.525731 31 255 255
0.162460 0.500000 -0.850651 255 31 255
0.525731 0.000000 -0.850651 255 255 31
-0.425325 0.309017 -0.850651 31 31 255
-0.425325 -0.309017 -0.850651 255 31 31
0.162460 -0.500000 -0.850651 31 255 31
0.361804 0.587785 0.723607 255 0 0
-0.138197 0.425325 0.894427 0 255 0
0.447214 0.000000 0.894427 0 0 255
0.670820 0.162460 0.723607 255 255 0
0.670820 -0.162460 0.723607 255 0 255
0.361804 -0.587785 0.723607 0 255 255
-0.138197 -0.425325 0.894427 128 128 128
-0.447214 0.000000 0.894427 255 128 128
-0.638197 0.262866 0.723607 128 255 128
-0.638197 -0.262866 0.723607 128 128 255
0.138197 0.425325 -0.894427 255 128 255
-0.361804 0.587785 -0.723607 128 255 255
-0.447214 0.000000 -0.894427 255 0 128
-0.670820 0.162460 -0.723607 128 255 0
-0.670820 -0.162460 -0.723607 0 128 255
-0.361804 -0.587785 -0.723607 255 128 0
0.138197 -0.425325 -0.894427 0 255 128
0.447214 0.000000 -0.894427 128 0 255
0.638197 0.262866 -0.723607 255 255 128
0.638197 -0.262866 -0.723607 128 255 255
0.809017 0.587785 0.000000 255 128 64
0.309017 0.951057 0.000000 64 255 128
-0.309017 0.951057 0.000000 128 64 255
-0.809017 0.587785 0.000000 255 192 64
-1.000000 0.000000 0.000000 64 255 192
-0.809017 -0.587785 0.000000 192 64 255
-0.309017 -0.951057 0.000000 255 64 192
0.309017 -0.951057 0.000000 192 255 64
0.809017 -0.587785 0.000000 64 192 255
1.000000 0.000000 0.000000 255 192 192
0.147621 0.716567 0.681718 192 192 255
-0.147621 0.716567 0.681718 255 192 255
0.000000 0.525731 0.850651 192 255 192
-0.309017 0.951057 0.000000 160 255 255
-0.147621 0.716567 -0.681718 255 160 255
0.147621 0.716567 -0.681718 255 255 160
0.000000 0.850651 0.525731 160 160 255
0.525731 0.850651 0.000000 255 160 160
0.681718 0.716567 0.147621 160 255 160
0.681718 0.716567 -0.147621 96 255 255
0.850651 0.525731 0.000000 255 96 255
0.809017 0.587785 0.000000 255 255 96
0.864188 0.442863 0.238856 96 96 255
0.809017 0.309017 0.500000 255 96 96
0.864188 0.442863 -0.238856 96 255 96
0.809017 0.309017 -0.500000 32 255 255
0.147621 -0.716567 0.681718 255 32 255
-0.147621 -0.716567 0.681718 255 255 32
0.000000 -0.525731 0.850651 32 32 255
0.309017 -0.951057 0.000000 255 32 32
0.147621 -0.716567 -0.681718 32 255 32
-0.147621 -0.716567 -0.681718 223 255 255
0.000000 -0.850651 0.525731 255 223 255
0.525731 -0.850651 0.000000 255 255 223
0.681718 -0.716567 0.147621 223 223 255
0.681718 -0.716567 -0.147621 255 223 223
0.850651 -0.525731 0.000000 223 255 223
0.809017 -0.587785 0.000000 191 255 255
0.864188 -0.442863 0.238856 255 191 255
0.809017 -0.309017 0.500000 255 255 191
0.864188 -0.442863 -0.238856 191 191 255
0.809017 -0.309017 -0.500000 255 191 191
-0.147621 0.716567 0.681718 191 255 191
-0.442863 0.238856 0.864188 159 255 255
-0.309017 0.500000 0.809017 255 159 255
-0.238856 0.864188 0.442863 255 255 159
0.000000 0.850651 0.525731 159 159 255
0.238856 0.864188 0.442863 255 159 159
0.309017 0.500000 0.809017 159 255 159
0.442863 0.238856 0.864188 127 255 255
0.147621 0.716567 0.681718 255 127 255
-0.681718 0.716567 0.147621 255 255 127
-0.809017 0.587785 0.000000 127 127 255
-0.864188 0.442863 0.238856 255 127 127
-0.809017 0.309017 0.500000 127 255 127
-0.864188 0.442863 -0.238856 95 255 255
-0.809017 0.309017 -0.500000 255 95 255
-0.681718 0.716567 -0.147621 255 255 95
-0.850651 0.525731 0.000000 95 95 255
-0.525731 0.850651 0.000000 255 95 95
-0.500000 0.809017 0.309017 95 255 95
-0.238856 0.864188 0.442863 63 255 255
-0.425325 0.688191 0.587785 255 63 255
-0.716567 0.681718 0.147621 255 255 63
-0.500000 0.809017 -0.309017 63 63 255
-0.425325 0.688191 -0.587785 255 63 63
-0.716567 0.681718 -0.147621 63 255 63
-0.238856 0.864188 -0.442863 31 255 255
-0.850651 -0.525731 0.000000 255 31 255
-0.955423 -0.295242 0.000000 255 255 31
-0.951057 -0.162460 0.262866 31 31 255
-0.850651 0.000000 0.525731 255 31 31
-0.587785 -0.688191 0.500000 31 255 31
-0.688191 -0.587785 0.425325 255 224 224
-0.587785 -0.688191 -0.500000 224 255 224
-0.688191 -0.587785 -0.425325 224 224 255
-0.951057 -0.162460 -0.262866 255 224 255
-0.951057 0.162460 -0.262866 224 255 255
-0.864188 -0.442863 0.238856 255 192 192
-0.809017 -0.309017 0.500000 192 255 192
-0.864188 -0.442863 -0.238856 192 192 255
-0.809017 -0.309017 -0.500000 255 192 255
-0.681718 -0.716567 0.147621 192 255 255
-0.681718 -0.716567 -0.147621 255 160 160
-0.850651 -0.525731 0.000000 160 255 160
-0.809017 -0.587785 0.000000 160 160 255
-0.525731 -0.850651 0.000000 255 160 255
-0.238856 -0.864188 0.442863 160 255 255
-0.500000 -0.809017 0.309017 255 128 128
-0.425325 -0.688191 0.587785 128 255 128
-0.716567 -0.681718 0.147621 128 128 255
-0.238856 -0.864188 -0.442863 255 128 255
-0.500000 -0.809017 -0.309017 128 255 255
-0.425325 -0.688191 -0.587785 255 96 96
-0.716567 -0.681718 -0.147621 96 255 96
0.000000 -0.850651 -0.525731 96 96 255
0.238856 -0.864188 -0.442863 255 96 255
0.000000 -0.955423 -0.295242 96 255 255
0.262866 -0.951057 -0.162460 255 64 64
0.000000 -1.000000 0.000000 64 255 64
0.238856 -0.864188 0.442863 64 64 255
0.262866 -0.951057 0.162460 255 64 255
0.500000 -0.809017 0.309017 64 255 255
0.525731 -0.850651 0.000000 255 32 32
0.500000 -0.809017 -0.309017 32 255 32